# .PCD v0.7 - Point Cloud Data file format
VERSION 0.7
FIELDS x y z t intensity
SIZE 4 4 4 4 2
TYPE F F F U U
COUNT 1 1 1 1 1
WIDTH 1059
HEIGHT 1
VIEWPOINT 0 0 0 1 0 0 0
POINTS 1059
DATA ascii
5.9056363 -4.2512765 -0.89088428 8757627 5130
5.6624746 -3.7705352 -0.8980456 8757627 3006
5.3938131 -3.3142595 -0.89760798 8757627 2067
4.4769392 -3.480046 -0.85149813 8757627 3435
4.3378925 -3.1250079 -0.8534686 8757627 2662
4.2062731 -2.8019376 -0.85573882 8757627 1746
4.0535078 -2.4897265 -0.85336 8757627 1744
3.4889898 -2.7159956 -0.83145595 8757627 2065
3.3729014 -2.432514 -0.82190794 8757627 1252
3.284811 -2.1897769 -0.81970567 8757627 1003
3.2632108 -2.0035298 -0.83419788 8757627 1132
2.8328137 -2.2083759 -0.81408262 8757627 1148
2.782331 -2.008075 -0.81175435 8757627 793
2.7406664 -1.8277206 -0.81279421 8757627 793
2.7127931 -1.6655871 -0.81911063 8757627 647
2.3595221 -1.8420616 -0.79816496 8757627 458
2.3440022 -1.6929672 -0.7996968 8757627 465
2.3396757 -1.5603044 -0.80798763 8757627 351
2.3243971 -1.4260048 -0.81449711 8757627 403
6.4879141 -5.0570126 -0.025842704 8757627 1193
6.8967948 -4.9859705 -0.10694958 8757627 1445
7.264822 -4.8623977 -0.19227512 8757627 1076
0 -0 -0 8757627 0
6.4968486 -5.0676227 -0.32661262 8757627 1693
6.903492 -4.9944816 -0.41822457 8757627 2632
7.3147988 -4.8958478 -0.51368719 8757627 3579
14.229068 -8.7965155 -1.1345732 8757627 5816
6.5553398 -5.1169286 -0.63257986 8757627 2104
6.9003043 -4.99401 -0.72874272 8757627 2390
8.4300814 -5.6465755 -0.96269381 8757627 5379
7.8284798 -4.8415136 -0.96419805 8757627 4481
4.0691905 -3.1797345 -0.58290958 8757627 1133
5.8740783 -4.25598 -0.8880893 8757627 4200
5.6459394 -3.7845776 -0.89726037 8757627 3604
5.3920393 -3.3360014 -0.89901179 8757627 2615
4.4537792 -3.4840159 -0.84912211 8757627 2834
4.3154936 -3.1290271 -0.85094631 8757627 2467
4.2099404 -2.8230658 -0.85824293 8757627 1966
4.0517106 -2.5057752 -0.85459596 8757627 1697
3.4466002 -2.7000201 -0.82332438 8757627 2002
3.3725681 -2.4480369 -0.82365298 8757627 1348
3.2837687 -2.2036633 -0.82112879 8757627 812
3.254555 -2.0119905 -0.83355933 8757627 1296
2.8237236 -2.2152503 -0.81341952 8757627 1201
2.7887545 -2.0257523 -0.81543791 8757627 1074
2.7608407 -1.8534372 -0.82045978 8757627 597
2.7167318 -1.6795039 -0.82185185 8757627 617
2.3584187 -1.8528734 -0.79971075 8757627 546
2.3543892 -1.711485 -0.80502808 8757627 453
2.3420594 -1.5722964 -0.81047291 8757627 440
2.3216414 -1.4341364 -0.8150695 8757627 323
4.0214295 -3.1543889 -0.016056657 8757627 3475
6.8733807 -5.0012221 -0.10682392 8757627 1657
7.2780609 -4.9036565 -0.19302276 8757627 934
0 -0 -0 8757627 0
3.7766802 -2.9645388 -0.19031939 8757627 1146
6.8792553 -5.0091705 -0.4176853 8757627 2547
7.2856698 -4.908783 -0.51269674 8757627 2559
14.16305 -8.815876 -1.1314605 8757627 5480
3.6626527 -2.8770983 -0.35429025 8757627 594
6.8648167 -5.0004911 -0.72661167 8757627 2165
8.3995113 -5.663507 -0.96118253 8757627 5552
7.7975483 -4.8555198 -0.96221858 8757627 6288
6.1699691 -4.8518791 -0.88597316 8757627 2462
5.8529739 -4.2681327 -0.88687402 8757627 4078
5.6285496 -3.7979994 -0.89634424 8757627 3562
5.3809385 -3.3520045 -0.89887142 8757627 3194
4.4461775 -3.5001101 -0.84971613 8757627 3882
4.2986946 -3.137013 -0.84952754 8757627 2628
4.1742921 -2.8177645 -0.85273385 8757627 1555
4.0239506 -2.505707 -0.85035831 8757627 1411
3.4267237 -2.7014546 -0.82055223 8757627 1713
3.3682103 -2.4606872 -0.82442856 8757627 1442
3.2729356 -2.2109871 -0.82011223 8757627 1021
3.2375834 -2.0152535 -0.83079213 8757627 1409
2.795481 -2.2069821 -0.80723047 8757627 1088
2.7785988 -2.0314271 -0.81428677 8757627 898
2.752728 -1.8602678 -0.81974113 8757627 701
2.7164993 -1.6909015 -0.82334703 8757627 808
2.3466592 -1.8553061 -0.79764968 8757627 497
2.3405709 -1.7124399 -0.80209589 8757627 531
2.3252797 -1.5714021 -0.8063308 8757627 441
2.3066535 -1.4346735 -0.81134897 8757627 361
4.0062385 -3.1623745 -0.016034665 8757627 2573
6.8362226 -5.0063353 -0.10648464 8757627 1579
7.2513986 -4.9181061 -0.1927149 8757627 542
25.826672 -16.173563 -0.95765126 8757627 8617
3.7926583 -2.9959316 -0.19158685 8757627 910
6.8412971 -5.0137205 -0.41631263 8757627 2751
7.2276134 -4.9019742 -0.50966716 8757627 1753
14.09282 -8.8322649 -1.1280096 8757627 8511
3.6444216 -2.8809016 -0.35338005 8757627 724
6.8373895 -5.0126915 -0.72533303 8757627 3179
8.3730354 -5.6831002 -0.96014351 8757627 6054
7.7581787 -4.8640985 -0.95919734 8757627 4964
3.741812 -2.9610724 -0.53860527 8757627 468
5.8350506 -4.2825456 -0.88614488 8757627 4931
5.6078496 -3.8091226 -0.89490467 8757627 2647
5.3622417 -3.3632367 -0.89746761 8757627 2725
4.4276667 -3.5075936 -0.84823114 8757627 3604
4.2970085 -3.1560323 -0.85110396 8757627 2234
4.1656275 -2.8305578 -0.85273385 8757627 1948
4.0204144 -2.5206549 -0.85124117 8757627 1501
3.4161098 -2.7101226 -0.81999779 8757627 1630
3.3748717 -2.4814699 -0.82791859 8757627 1272
3.2879977 -2.2358835 -0.82560134 8757627 1150
3.2471161 -2.0350354 -0.83483648 8757627 1254
2.8100777 -2.2325349 -0.81341952 8757627 904
2.7739208 -2.0410955 -0.81474721 8757627 1084
2.7357695 -1.8610591 -0.81638747 8757627 682
2.7047341 -1.6951133 -0.82135344 8757627 813
2.315248 -1.8420432 -0.78888994 8757627 514
2.3244407 -1.7116117 -0.79836392 8757627 400
2.3204479 -1.5785286 -0.8063308 8757627 433
2.3054893 -1.4437778 -0.81249374 8757627 403
3.9941683 -3.1727846 -0.016025241 8757627 2799
6.8039279 -5.0148268 -0.10622075 8757627 1280
7.1908631 -4.9093256 -0.19150549 8757627 844
25.777775 -16.253252 -0.95768267 8757627 5635
3.8640146 -3.0715966 -0.19566655 8757627 755
6.805788 -5.0198646 -0.41508704 8757627 3091
7.2166624 -4.9269395 -0.50995845 8757627 2437
14.041188 -8.8600197 -1.1260471 8757627 6804
3.6901894 -2.9355214 -0.35868949 8757627 588
6.8027372 -5.0194468 -0.72328717 8757627 2867
7.9215474 -5.4122314 -0.91027087 8757627 1848
7.7188301 -4.8724818 -0.9561761 8757627 3339
3.6759651 -2.92735 -0.53041744 8757627 618
5.8250775 -4.3027864 -0.88663101 8757627 4193
5.5879531 -3.8207135 -0.89359593 8757627 2782
5.3468757 -3.3764997 -0.89662528 8757627 2680
4.3944597 -3.503284 -0.84392464 8757627 2888
4.2658653 -3.1533515 -0.84684765 8757627 2186
4.2065659 -2.8772793 -0.86291724 8757627 1886
3.9943507 -2.5214186 -0.84735662 8757627 1603
3.400867 -2.7150719 -0.81833452 8757627 1662
3.3822258 -2.5028999 -0.83160251 8757627 1520
3.2988977 -2.2581277 -0.83007395 8757627 1229
3.240031 -2.0444665 -0.83462358 8757627 975
2.7902656 -2.2307925 -0.80966187 8757627 1164
2.7379282 -2.0275888 -0.80599886 8757627 851
2.7380576 -1.8749291 -0.81878293 8757627 769
2.683959 -1.6935841 -0.81661868 8757627 706
2.3186371 -1.8563844 -0.79198164 8757627 510
2.3106606 -1.7124226 -0.79543173 8757627 416
2.3338332 -1.59813 -0.81268203 8757627 398
2.305912 -1.4539102 -0.81421089 8757627 290
3.9828534 -3.1837747 -0.016018957 8757627 2261
6.7660246 -5.0189972 -0.10586891 8757627 1569
7.1774158 -4.9324965 -0.19154947 8757627 829
0 -0 -0 8757627 0
3.8967078 -3.1171424 -0.1978054 8757627 694
6.7919593 -5.0419111 -0.41518509 8757627 1437
7.1760077 -4.9315286 -0.50815237 8757627 2593
13.983623 -8.8837957 -1.1236112 8757627 8160
3.7675707 -3.0159974 -0.3671087 8757627 262
6.7969046 -5.0474224 -0.7243101 8757627 1734
7.1174507 -4.8949456 -0.81959325 8757627 1724
7.6929331 -4.889205 -0.95482171 8757627 4845
3.6731703 -2.9435852 -0.53131473 8757627 393
5.8126459 -4.3212299 -0.88675255 8757627 4928
5.5737548 -3.836153 -0.89320332 8757627 3064
5.2897024 -3.3631399 -0.88876384 8757627 2197
4.3312383 -3.4746697 -0.83382666 8757627 2039
4.2648859 -3.1729081 -0.84858173 8757627 2917
4.1920342 -2.8862576 -0.8617487 8757627 1902
4.0140095 -2.5510838 -0.85318345 8757627 1672
3.4040134 -2.7347257 -0.82110667 8757627 2008
3.3454201 -2.4915831 -0.82442856 8757627 1168
3.2597039 -2.2460165 -0.82194197 8757627 1043
3.2576604 -2.0695918 -0.84079653 8757627 1162
2.7712505 -2.2295609 -0.80612528 8757627 1031
2.7668066 -2.0621483 -0.81635875 8757627 828
2.7410858 -1.8893814 -0.82141799 8757627 563
2.6713936 -1.6971364 -0.81437594 8757627 651
2.325722 -1.8737947 -0.79636145 8757627 525
2.3239384 -1.7333333 -0.80182928 8757627 467
2.3154664 -1.5960096 -0.80798763 8757627 402
2.296587 -1.4578968 -0.81249374 8757627 273
3.9754043 -3.1978593 -0.016028382 8757627 2708
6.7465882 -5.0367398 -0.10580608 8757627 1984
7.1227837 -4.9271932 -0.19049397 8757627 1570
25.685141 -16.415962 -0.95796537 8757627 4765
3.9159253 -3.1522658 -0.19927093 8757627 1092
6.7244492 -5.0238681 -0.41199851 8757627 2616
7.1567392 -4.9506817 -0.50786108 8757627 2963
13.91764 -8.901926 -1.1204984 8757627 7566
6.3937693 -5.1505747 -0.62453991 8757627 1299
6.7678199 -5.0581117 -0.72286099 8757627 2954
7.1482372 -4.9484906 -0.82488275 8757627 2743
7.6460629 -4.8924141 -0.95086282 8757627 3471
3.6973832 -2.981663 -0.5361377 8757627 723
5.7977715 -4.337853 -0.88650948 8757627 4713
5.5578852 -3.8504121 -0.89254892 8757627 3247
5.3043761 -3.3953662 -0.89297533 8757627 2825
4.3128633 -3.48173 -0.83234161 8757627 1488
4.2495985 -3.1818345 -0.84747821 8757627 2655
4.1442614 -2.8721473 -0.85373551 8757627 1842
3.9846079 -2.5495937 -0.84859264 8757627 1568
3.3780293 -2.7309453 -0.81685603 8757627 1677
3.3565998 -2.5159566 -0.82908195 8757627 1566
3.2536025 -2.2565646 -0.82214528 8757627 1092
3.2191944 -2.0590439 -0.83249503 8757627 974
2.7863789 -2.2558489 -0.81253535 8757627 1047
2.7262139 -2.0449343 -0.80622911 8757627 833
2.6882126 -1.8651285 -0.80728453 8757627 441
2.6898339 -1.7204571 -0.82160264 8757627 555
2.3184609 -1.879704 -0.79584622 8757627 553
2.3093596 -1.7335117 -0.79863054 8757627 339
2.3176661 -1.6080369 -0.81047291 8757627 428
2.2993698 -1.4695798 -0.8150695 8757627 397
3.993556 -3.232691 -0.01614148 8757627 1766
6.6871357 -5.0243793 -0.10511494 8757627 1598
7.1141973 -4.9535928 -0.19066989 8757627 1200
25.657351 -16.509287 -0.95881349 8757627 15939
3.9209881 -3.1762149 -0.20002349 8757627 839
6.6579127 -5.0060596 -0.40886098 8757627 2996
7.1406975 -4.9720449 -0.50780278 8757627 3648
13.853354 -8.9208155 -1.1175212 8757627 8632
3.8094118 -3.0880349 -0.37302494 8757627 487
6.737937 -5.0680704 -0.72132659 8757627 2211
7.0880985 -4.9390945 -0.81968772 8757627 1959
7.6176391 -4.9072309 -0.94919592 8757627 4280
3.8741722 -3.1438944 -0.56316894 8757627 1222
5.7780929 -4.3508434 -0.88553727 8757627 5074
5.5216494 -3.8504329 -0.88862276 8757627 2528
5.2847795 -3.4057238 -0.89143115 8757627 2855
3.8899827 -3.1601036 -0.75259721 8757627 892
4.2484918 -3.2013943 -0.84921229 8757627 2632
4.137856 -2.8865404 -0.85423636 8757627 2213
3.998281 -2.5756652 -0.85318345 8757627 1391
3.4008918 -2.7667246 -0.82443321 8757627 1765
3.3371172 -2.5173807 -0.82617354 8757627 1501
3.2571011 -2.2738221 -0.82478815 8757627 1000
3.2366853 -2.0842512 -0.83866793 8757627 1206
2.7681036 -2.255147 -0.80921978 8757627 1068
2.7191505 -2.0527022 -0.80599886 8757627 976
2.6792941 -1.8711435 -0.80632633 8757627 723
2.6601157 -1.7129713 -0.81412673 8757627 724
2.3126833 -1.886808 -0.79584622 8757627 676
2.2940331 -1.7330358 -0.79516518 8757627 496
2.2914462 -1.6002816 -0.80301714 8757627 507
2.2851808 -1.4704056 -0.8116352 8757627 474
4.2743669 -3.4817612 -0.017319575 8757627 271
6.6557379 -5.0328097 -0.10486362 8757627 2030
7.0392013 -4.9335084 -0.18906467 8757627 1338
25.633425 -16.605316 -0.9598186 8757627 9590
3.9553719 -3.2242153 -0.20228119 8757627 785
6.6321692 -5.0186267 -0.40822366 8757627 3751
7.0739069 -4.9578323 -0.50413239 8757627 2242
13.805827 -8.9502497 -1.1158971 8757627 5349
6.3574095 -5.1859279 -0.62408483 8757627 1570
6.7080574 -5.0778937 -0.71979225 8757627 2061
7.0582414 -4.9505281 -0.8179875 8757627 2396
7.593369 -4.9246259 -0.94804996 8757627 3941
3.8929861 -3.1790204 -0.56731892 8757627 902
5.7544332 -4.3607559 -0.88395751 8757627 4682
5.5203595 -3.8747592 -0.89032412 8757627 3558
5.2610164 -3.4132996 -0.88918501 8757627 2517
3.6230137 -2.9617233 -0.70270127 8757627 733
4.2433715 -3.2179935 -0.8501581 8757627 2436
4.1426983 -2.9088538 -0.85707432 8757627 1908
3.9920118 -2.5889909 -0.85353655 8757627 1388
3.3566463 -2.7478859 -0.8157472 8757627 2007
3.3418803 -2.5370982 -0.82927585 8757627 1237
3.2733419 -2.3001289 -0.83068389 8757627 1061
3.2130585 -2.0830097 -0.83419788 8757627 1102
2.7634342 -2.2654836 -0.80988288 8757627 1057
2.7337618 -2.0769296 -0.81221479 8757627 940
2.6870437 -1.8888463 -0.8103987 8757627 833
2.6670372 -1.7290268 -0.81786466 8757627 689
2.3128583 -1.8987994 -0.79790729 8757627 517
2.3002141 -1.7488155 -0.79916364 8757627 446
2.2873123 -1.6078568 -0.80329329 8757627 422
2.2927217 -1.4852238 -0.81592804 8757627 332
4.3317223 -3.5506442 -0.017596034 8757627 157
6.5957065 -5.0192957 -0.10415992 8757627 1439
6.9962564 -4.9354863 -0.18831703 8757627 1020
25.617521 -16.706812 -0.96113789 8757627 6743
3.9763637 -3.2616835 -0.20386553 8757627 823
6.6119733 -5.0353203 -0.40792951 8757627 3695
7.0806885 -4.995049 -0.50570542 8757627 7233
13.753239 -8.9762039 -1.113867 8757627 8278
3.9036877 -3.2043498 -0.3841747 8757627 516
6.6853137 -5.0930157 -0.71902502 8757627 2845
7.0161819 -4.9532113 -0.81487048 8757627 2091
7.5632348 -4.9381118 -0.94617468 8757627 4266
3.8455956 -3.1600361 -0.56182295 8757627 460
5.7307668 -4.3705654 -0.88237768 8757627 4033
5.4963002 -3.8830967 -0.88836104 8757627 3317
5.2712431 -3.4429598 -0.89269459 8757627 2176
3.64064 -2.994813 -0.7078988 8757627 655
4.2342629 -3.2315962 -0.85031575 8757627 2202
4.1313391 -2.9198425 -0.85657352 8757627 1962
3.932127 -2.5673251 -0.84241271 8757627 1425
3.3519928 -2.7612956 -0.81667125 8757627 1653
3.3449945 -2.5556772 -0.8319903 8757627 1357
3.2462854 -2.2960262 -0.82560134 8757627 1030
3.232018 -2.1094124 -0.84079653 8757627 945
2.7519572 -2.2702277 -0.80855668 8757627 1200
2.7397463 -2.094764 -0.8158983 8757627 975
2.6851988 -1.8998851 -0.81159645 8757627 573
2.6511769 -1.73032 -0.81462508 8757627 628
2.3167059 -1.9138864 -0.8012566 8757627 763
2.2963691 -1.7570357 -0.7996968 8757627 419
2.2698152 -1.6059847 -0.79887503 8757627 376
2.2809312 -1.4875401 -0.81335235 8757627 405
4.2482939 -3.5041046 -0.017300725 8757627 578
6.574719 -5.0352516 -0.10407196 8757627 1442
6.9574418 -4.9401422 -0.18767934 8757627 1599
25.564474 -16.784229 -0.96107507 8757627 13352
3.9925389 -3.2954938 -0.20521222 8757627 428
6.574297 -5.0385695 -0.40655684 8757627 3091
7.0767264 -5.0248404 -0.50652105 8757627 4291
13.693116 -8.9969893 -1.1112281 8757627 6630
3.9814789 -3.2887018 -0.39282149 8757627 1431
6.6530519 -5.1007714 -0.71723491 8757627 3459
6.9912143 -4.9677944 -0.81373698 8757627 2074
7.5380769 -4.9547372 -0.94492447 8757627 4093
4.1674733 -3.4460058 -0.61038941 8757627 454
5.7086701 -4.3814788 -0.88104093 8757627 4616
5.4576993 -3.8809812 -0.88404226 8757627 2685
5.2449369 -3.4487798 -0.89002728 8757627 2431
4.283524 -3.5457437 -0.83501464 8757627 2268
4.2196302 -3.2409623 -0.84936994 8757627 2195
4.0910282 -2.9102139 -0.85006285 8757627 1932
3.9521978 -2.5977583 -0.84841603 8757627 1791
3.3389657 -2.7678032 -0.81556237 8757627 1787
3.3114738 -2.5461941 -0.82559186 8757627 1407
3.2583692 -2.3196027 -0.83048058 8757627 862
3.1634705 -2.0785415 -0.82461917 8757627 1151
2.7472303 -2.2805285 -0.80921978 8757627 1068
2.6932018 -2.0723007 -0.80392689 8757627 957
2.6825206 -1.9103669 -0.81255466 8757627 655
2.6531403 -1.7432319 -0.81686789 8757627 708
2.3019071 -1.9135727 -0.79816496 8757627 651
2.2833309 -1.7581925 -0.7970311 8757627 480
2.2664433 -1.6140559 -0.79942727 8757627 418
2.2779586 -1.4955825 -0.81392473 8757627 364
4.2952342 -3.5650215 -0.017536344 8757627 341
6.5402327 -5.0407491 -0.10377038 8757627 1290
6.9284253 -4.9515815 -0.18730551 8757627 1893
25.537041 -16.878565 -0.96198595 8757627 5751
4.1530519 -3.4494598 -0.21400534 8757627 264
6.5477352 -5.0501757 -0.4058705 8757627 2948
7.0149817 -5.0134416 -0.50320017 8757627 3205
13.658792 -9.0345545 -1.1106868 8757627 6148
3.9621682 -3.2932529 -0.3919113 8757627 1344
6.6365824 -5.1205502 -0.71714967 8757627 3032
6.9573164 -4.9758992 -0.81156451 8757627 3694
7.5170341 -4.9739985 -0.94419521 8757627 3347
3.9147406 -3.2572992 -0.57483387 8757627 651
5.687345 -4.3929048 -0.87982571 8757627 4325
5.4522157 -3.9023232 -0.88508922 8757627 2969
5.2145171 -3.4517391 -0.88665813 8757627 2470
4.268827 -3.5557039 -0.83427215 8757627 2925
4.2174802 -3.2599318 -0.85094631 8757627 2180
4.0548239 -2.9032359 -0.84438682 8757627 1753
3.941747 -2.6082418 -0.84788632 8757627 1674
3.3372507 -2.7836995 -0.81722564 8757627 1919
3.3408878 -2.5851591 -0.83489871 8757627 1368
3.2265646 -2.3119099 -0.82417828 8757627 966
3.175822 -2.1006351 -0.82951498 8757627 1272
2.7379754 -2.2870703 -0.80855668 8757627 1093
2.6914477 -2.0841284 -0.80530822 8757627 937
2.6521847 -1.9010537 -0.80512857 8757627 631
2.6405098 -1.7465549 -0.81462508 8757627 671
2.299731 -1.9237257 -0.79945314 8757627 672
2.2855449 -1.771093 -0.7996968 8757627 473
2.2677298 -1.625481 -0.8016364 8757627 393
2.2757576 -1.5041492 -0.81478328 8757627 389
0 -0 -0 8757627 0
6.5081444 -5.0479207 -0.10350649 8757627 1352
6.8953462 -4.959971 -0.18682174 8757627 1149
7.3195086 -4.87012 -0.27628905 8757627 791
4.2911882 -3.5864983 -0.2216894 8757627 1104
6.5195866 -5.0604415 -0.40508613 8757627 1986
6.9282503 -4.9836402 -0.49807322 8757627 2343
13.620215 -9.0692272 -1.1098071 8757627 5541
3.9566355 -3.3092313 -0.39236641 8757627 567
6.6098242 -5.1323318 -0.71595627 8757627 1742
6.9202032 -4.9815173 -0.8090142 8757627 1816
7.4884953 -4.9882154 -0.94252831 8757627 3996
3.8559673 -3.2284677 -0.56765544 8757627 763
5.6636534 -4.4024134 -0.87824589 8757627 4370
5.4313693 -3.9126577 -0.88364965 8757627 2817
5.2014313 -3.4660735 -0.88623697 8757627 2934
4.1919603 -3.5135179 -0.82135266 8757627 2102
4.1926498 -3.2613358 -0.84795117 8757627 2542
4.043498 -2.9139328 -0.84388602 8757627 1727
3.9279921 -2.616503 -0.84665036 8757627 1326
3.3143923 -2.7819204 -0.81371427 8757627 1781
3.3035281 -2.5724926 -0.8275308 8757627 1672
3.2035737 -2.3103435 -0.82011223 8757627 1022
3.1750555 -2.1141593 -0.83100498 8757627 1272
2.7331855 -2.2973423 -0.80921978 8757627 1149
2.6973228 -2.1019466 -0.80899173 8757627 1009
2.6683862 -1.9250866 -0.811836 8757627 481
2.6448126 -1.7610887 -0.81761545 8757627 743
2.2768159 -1.916461 -0.79352742 8757627 520
2.27478 -1.7739476 -0.79783082 8757627 410
2.2510407 -1.6239958 -0.79749429 8757627 384
2.2647502 -1.5068779 -0.81249374 8757627 411
4.3574886 -3.6620808 -0.017881919 8757628 161
6.4674044 -5.0481763 -0.10310438 8757628 802
6.8663297 -4.9711356 -0.18644793 8757628 1653
7.2912459 -4.8836536 -0.27578649 8757628 779
4.3543425 -3.6620307 -0.22553144 8757628 1107
3.780571 -2.9530745 -0.23546274 8757628 395
6.8870525 -4.9861383 -0.49620888 8757628 3030
7.2905121 -4.8868489 -0.59526694 8757628 1527
3.9868977 -3.3553836 -0.39638638 8757628 281
8.6572876 -6.7648025 -0.93997496 8757628 3233
6.9000497 -4.9992208 -0.80844748 8757628 1900
7.4508533 -4.9962111 -0.93971545 8757628 4210
3.8232462 -3.2210751 -0.56429052 8757628 823
5.5938306 -4.3757362 -0.86949629 8757628 2954
5.411314 -3.9234829 -0.88234091 8757628 3758
5.176795 -3.4726386 -0.88385046 8757628 2688
3.9127986 -3.3000274 -0.76863521 8757628 1410
4.184957 -3.2760096 -0.84842408 8757628 3002
4.0225673 -2.9176412 -0.84138191 8757628 1693
3.9248509 -2.6318307 -0.84770977 8757628 2090
3.3118482 -2.7971487 -0.81519276 8757628 1787
3.265506 -2.5590162 -0.819969 8757628 1497
3.1861696 -2.3126843 -0.81746936 8757628 981
3.1677427 -2.1233461 -0.83079213 8757628 1255
2.7171888 -2.2981589 -0.80656731 8757628 1048
2.6908612 -2.1102121 -0.80899173 8757628 860
2.6766086 -1.9435323 -0.81614792 8757628 742
2.6265259 -1.7605671 -0.81362832 8757628 596
2.2819853 -1.9328046 -0.79739201 8757628 592
2.2647777 -1.777348 -0.79623145 8757628 487
2.2444921 -1.629765 -0.79694206 8757628 366
2.2640972 -1.516485 -0.81392473 8757628 340
6.0642624 -5.1282992 -0.024950493 8757628 510
6.4597492 -5.0741706 -0.10323004 8757628 1950
6.8356943 -4.9809914 -0.18603013 8757628 1645
7.2845163 -4.9115877 -0.27610058 8757628 765
4.3491893 -3.6805363 -0.2258483 8757628 614
3.7542179 -2.9510796 -0.23438421 8757628 733
6.8701091 -5.0060682 -0.49609235 8757628 2452
7.2490196 -4.891335 -0.59310156 8757628 1685
4.1097465 -3.4803684 -0.40965995 8757628 241
3.6333265 -2.8570762 -0.39544246 8757628 770
6.8862891 -5.0215392 -0.80863637 8757628 3090
7.4247732 -5.0118127 -0.93836105 8757628 5012
3.7997024 -3.2212231 -0.5622716 8757628 910
5.4719691 -4.3075371 -0.85260457 8757628 1511
5.3824339 -3.9277937 -0.8795926 8757628 3331
5.1611934 -3.4851797 -0.88300818 8757628 2681
3.9192438 -3.3260934 -0.7719022 8757628 830
4.1702318 -3.2851667 -0.84747821 8757628 2133
4.0024481 -2.9218297 -0.83904475 8757628 2036
3.931443 -2.6537719 -0.85088801 8757628 1894
3.3234706 -2.8244798 -0.82018262 8757628 1908
3.2799783 -2.5866394 -0.82559186 8757628 1572
3.1830125 -2.3253362 -0.81848586 8757628 1115
3.1450145 -2.1221242 -0.82653493 8757628 1170
2.7064118 -2.303324 -0.80546212 8757628 1004
2.6790271 -2.1142375 -0.8073802 8757628 980
2.6479013 -1.9351219 -0.80920094 8757628 500
2.6435902 -1.7837839 -0.82060581 8757628 736
2.2679555 -1.9329023 -0.79455799 8757628 674
2.2585578 -1.7836907 -0.79596484 8757628 497
2.2487934 -1.6434484 -0.80025572 8757628 385
2.2499003 -1.5169963 -0.81049043 8757628 361
6.0226068 -5.1248465 -0.024843678 8757628 2561
6.431601 -5.0840435 -0.10302898 8757628 1616
6.8195739 -5.0013485 -0.18600814 8757628 1502
7.2239275 -4.9030414 -0.27437299 8757628 1606
4.357657 -3.7107055 -0.22687814 8757628 519
3.770997 -2.9830325 -0.23600201 8757628 604
6.8249326 -5.0052781 -0.49393669 8757628 2450
7.2331543 -4.912992 -0.59303391 8757628 4288
4.2925792 -3.6578753 -0.42900142 8757628 237
3.6448584 -2.884285 -0.39765877 8757628 824
6.86443 -5.03793 -0.8078807 8757628 2486
7.3887973 -5.0205941 -0.93575656 8757628 4647
5.7826047 -4.9328122 -0.85793251 8757628 2116
5.4525042 -4.3193736 -0.85163242 8757628 1350
5.3583722 -3.9354856 -0.87762952 8757628 2915
5.1578465 -3.5060072 -0.88427162 8757628 2257
4.1902781 -3.5782809 -0.82744116 8757628 2470
4.1663241 -3.3028533 -0.84873933 8757628 2223
4.0061784 -2.9434354 -0.84171575 8757628 1793
3.9102571 -2.65697 -0.84806293 8757628 1837
3.2976108 -2.819972 -0.81593198 8757628 1693
3.2620375 -2.5887623 -0.8230713 8757628 1633
3.1829629 -2.3403108 -0.82031554 8757628 1119
3.1522298 -2.1410964 -0.83015352 8757628 1107
2.676369 -2.2919512 -0.79860997 8757628 897
2.6702418 -2.120631 -0.80668956 8757628 857
2.6286561 -1.933457 -0.80512857 8757628 575
2.6164749 -1.7771943 -0.81387752 8757628 789
2.2568808 -1.9354481 -0.79275453 8757628 662
2.2523203 -1.7900118 -0.79569829 8757628 389
2.2383211 -1.6463536 -0.79832274 8757628 408
2.2531638 -1.5292726 -0.81335235 8757628 420
5.9878659 -5.1270394 -0.024765139 8757628 1550
6.3893661 -5.0825868 -0.10260174 8757628 1466
6.7921329 -5.013341 -0.1856783 8757628 1208
7.2195797 -4.9325109 -0.27478135 8757628 1767
4.3508043 -3.727958 -0.22711578 8757628 692
3.8977969 -3.1028254 -0.2445322 8757628 598
6.7750068 -5.0007 -0.49143147 8757628 1782
7.1933389 -4.9182663 -0.59100389 8757628 3877
6.0299034 -5.1703339 -0.6042124 8757628 1410
3.6749632 -2.9264874 -0.40192091 8757628 776
6.8337274 -5.0477281 -0.80608606 8757628 1974
7.3241053 -5.0095501 -0.92950565 8757628 4609
5.7644277 -4.9479408 -0.85748386 8757628 2229
3.637017 -2.8993831 -0.56945628 8757628 681
5.3255448 -3.9365845 -0.87422681 8757628 2986
5.1462483 -3.5212555 -0.88413125 8757628 2337
4.2085323 -3.6162548 -0.83323264 8757628 3259
4.1345572 -3.2983768 -0.84432542 8757628 2577
3.9685895 -2.9346087 -0.83570594 8757628 1993
3.8817763 -2.655062 -0.84364867 8757628 1955
3.2874539 -2.828794 -0.81556237 8757628 1868
3.2540801 -2.598758 -0.8230713 8757628 1235
3.1781292 -2.3518121 -0.82092547 8757628 1022
3.1174159 -2.1314554 -0.82270348 8757628 1095
2.6663697 -2.2976048 -0.7977258 8757628 1024
2.6637232 -2.1288133 -0.80668956 8757628 916
2.632076 -1.9484445 -0.80800319 8757628 681
2.628598 -1.7972383 -0.81935984 8757628 742
2.2553213 -1.9461507 -0.79430038 8757628 570
2.2438073 -1.7945055 -0.79463202 8757628 405
2.2417569 -1.6595033 -0.80136031 8757628 420
2.2437146 -1.5329349 -0.8116352 8757628 354
5.9607453 -5.1355944 -0.024718015 8757628 1604
0 -0 -0 8757628 0
6.7582626 -5.020442 -0.18517254 8757628 2270
7.3238292 -5.0367594 -0.27933589 8757628 4520
4.3514562 -3.7517276 -0.22774953 8757628 561
3.9373698 -3.1541092 -0.24762072 8757628 839
6.7524219 -5.0161028 -0.49090713 8757628 1700
7.1626015 -4.929563 -0.58971822 8757628 2042
4.3334718 -3.7388592 -0.43537274 8757628 759
3.7336116 -2.9919543 -0.40933707 8757628 687
6.8285961 -5.0763898 -0.80731398 8757628 2205
7.3234472 -5.0421467 -0.93138093 8757628 5681
3.7924554 -3.275543 -0.56563652 8757628 1081
3.6296539 -2.9117692 -0.56969929 8757628 728
5.3190117 -3.9570451 -0.87514293 8757628 3435
5.1354222 -3.5370264 -0.88413125 8757628 2608
4.2063956 -3.6369097 -0.83501464 8757628 3646
4.1344299 -3.3190813 -0.84637475 8757628 2359
3.9753876 -2.9585426 -0.83904475 8757628 2062
3.8865843 -2.6758888 -0.84647381 8757628 1446
3.2832181 -2.8427253 -0.81667125 8757628 2439
3.249151 -2.6111865 -0.82384688 8757628 1692
3.145771 -2.3428361 -0.81441987 8757628 926
3.1100576 -2.1404548 -0.82249057 8757628 1217
2.6703613 -2.3153572 -0.80104136 8757628 953
2.6549051 -2.1351452 -0.80599886 8757628 1004
2.642436 -1.9686909 -0.81303376 8757628 690
2.6079144 -1.7948617 -0.81462508 8757628 919
2.2653913 -1.9669969 -0.79996842 8757628 617
2.2352881 -1.7989632 -0.79356575 8757628 449
2.2335725 -1.6640757 -0.80025572 8757628 427
2.24137 -1.5414395 -0.81249374 8757628 371
4.2320447 -3.6688809 -0.017596034 8757628 1222
4.1185284 -3.3176537 -0.066461794 8757628 782
6.6947851 -5.0052342 -0.18385318 8757628 1613
7.3288875 -5.0734272 -0.28012118 8757628 6047
4.3376613 -3.7630951 -0.22763069 8757628 460
3.9432268 -3.1787107 -0.2486012 8757628 721
6.7282057 -5.0302205 -0.49026626 8757628 1774
7.1269412 -4.9373102 -0.58802658 8757628 1872
4.3310161 -3.7599809 -0.4362829 8757628 504
8.4369402 -6.8036084 -0.92727375 8757628 2785
6.8074098 -5.0931406 -0.80665278 8757628 2629
7.2278342 -5.0090733 -0.92117119 8757628 4604
3.9218936 -3.4084027 -0.5864988 8757628 751
3.6199312 -2.9222677 -0.56957775 8757628 567
5.2981172 -3.9668088 -0.87370336 8757628 3290
5.1416335 -3.564611 -0.88707924 8757628 1993
4.1944718 -3.6491487 -0.83486617 8757628 3429
4.0804429 -3.2963786 -0.83738917 8757628 2257
3.9386718 -2.9500375 -0.83320183 8757628 1934
3.8977728 -2.7012556 -0.85071146 8757628 1800
3.2811503 -2.8585947 -0.81833452 8757628 1586
3.2205291 -2.6044865 -0.8186118 8757628 1275
3.1205487 -2.3389697 -0.80974394 8757628 822
3.1042793 -2.1505425 -0.82270348 8757628 1247
2.6603057 -2.3209743 -0.80015725 8757628 1029
2.6619585 -2.1542997 -0.81014282 8757628 874
2.6060896 -1.9540734 -0.80369127 8757628 630
2.604784 -1.8045087 -0.81537271 8757628 609
2.2324231 -1.9504158 -0.79043579 8757628 677
2.2387464 -1.8130915 -0.79676455 8757628 471
2.2238431 -1.6674609 -0.79859889 8757628 442
2.2271764 -1.5417643 -0.8090595 8757628 407
4.241869 -3.700253 -0.017684 8757628 602
4.0687151 -3.298161 -0.065820932 8757628 3105
6.6682134 -5.0173345 -0.18354534 8757628 2524
7.3009863 -5.087317 -0.27965 8757628 5400
4.2854471 -3.7409017 -0.22549184 8757628 1069
3.9660342 -3.2172205 -0.25066021 8757628 1181
6.6720581 -5.0202274 -0.48729494 8757628 1321
7.0732965 -4.9323306 -0.5848462 8757628 1039
4.1865425 -3.6571403 -0.42285767 8757628 634
8.4407845 -6.8495507 -0.93000156 8757628 6628
6.781414 -5.1062169 -0.80542487 8757628 1819
7.1577811 -4.9931006 -0.91419101 8757628 3528
4.1343298 -3.6153481 -0.61992323 8757628 351
5.4376097 -4.4172502 -0.85770857 8757628 1273
5.2716699 -3.9723055 -0.87134767 8757628 3001
5.118494 -3.5718699 -0.88497353 8757628 2337
4.1706071 -3.6509268 -0.83234161 8757628 2774
4.0519204 -3.2939317 -0.83360583 8757628 2428
3.9303899 -2.9627006 -0.83336872 8757628 1664
3.8757436 -2.7036278 -0.84770977 8757628 2115
3.279016 -2.8744786 -0.81999779 8757628 2025
3.2292635 -2.6279778 -0.82287741 8757628 1705
3.1399345 -2.3685803 -0.81665617 8757628 1059
3.0928581 -2.156703 -0.82142627 8757628 1214
2.6524396 -2.3284817 -0.79993618 8757628 1014
2.6319447 -2.1434066 -0.80300605 8757628 849
2.6132572 -1.9720014 -0.80776364 8757628 761
2.5825534 -1.8008587 -0.81013954 8757628 666
2.230783 -1.9610834 -0.79198164 8757628 528
2.2070236 -1.7986406 -0.78743476 8757628 328
2.2171824 -1.6731179 -0.79804659 8757628 382
2.228725 -1.5529723 -0.81134897 8757628 314
4.2252359 -3.708632 -0.017662007 8757628 404
4.0554781 -3.3080997 -0.065770663 8757628 2298
6.6280813 -5.0190592 -0.18286367 8757628 1466
7.2927094 -5.1148577 -0.27993271 8757628 5098
4.2927184 -3.7705169 -0.22648205 8757628 395
3.9638832 -3.2356892 -0.25115046 8757628 1028
6.6335449 -5.0231957 -0.48560536 8757628 3957
7.0785465 -4.968338 -0.5865379 8757628 2245
4.1887836 -3.6818168 -0.42422295 8757628 637
8.3958063 -6.8558788 -0.92735904 8757628 3032
7.7448282 -5.8689604 -0.92198336 8757628 5626
7.0651035 -4.960743 -0.90429378 8757628 2704
4.1112823 -3.6175125 -0.61812866 8757628 746
5.4586148 -4.4621816 -0.86317706 8757628 1946
5.2641978 -3.9920545 -0.8721329 8757628 3503
5.0929284 -3.5773125 -0.88244665 8757628 2011
4.1616125 -3.6656661 -0.83278716 8757628 3536
3.9378464 -3.2213128 -0.81216663 8757628 1538
3.9330647 -2.9836836 -0.83587283 8757628 2326
3.8158755 -2.6793067 -0.83640933 8757628 1743
3.2598636 -2.8754234 -0.81741047 8757628 1873
3.209801 -2.6285491 -0.819969 8757628 1318
3.0967801 -2.3509686 -0.80730438 8757628 898
3.0846274 -2.1650591 -0.82100058 8757628 1197
2.6467454 -2.3378997 -0.80037826 8757628 1095
2.6351414 -2.1594899 -0.80599886 8757628 891
2.6156995 -1.9864687 -0.8103987 8757628 616
2.5722601 -1.8054354 -0.80864435 8757628 694
2.2225847 -1.9659977 -0.79120868 8757628 660
2.2089479 -1.811515 -0.7901004 8757628 349
2.2128043 -1.6804936 -0.79832274 8757628 434
2.2239501 -1.5598027 -0.81134897 8757628 313
5.8223224 -5.142158 -0.024403855 8757628 1734
4.1913867 -3.4404309 -0.068145648 8757628 412
6.5903869 -5.0224028 -0.18224795 8757628 1497
7.2500377 -5.1181846 -0.27889615 8757628 5146
4.2698998 -3.7737434 -0.22588792 8757628 452
3.9987018 -3.2846055 -0.25399384 8757628 515
6.6133385 -5.0398932 -0.48525581 8757628 2354
7.0477881 -4.9790931 -0.58525223 8757628 2754
5.8572693 -5.1803055 -0.59480715 8757628 630
3.8490365 -3.1627929 -0.4262152 8757628 723
7.7299528 -5.8951087 -0.9223612 8757628 6289
7.0189872 -4.9605827 -0.90033489 8757628 2530
4.1611719 -3.6841221 -0.62732601 8757628 417
5.4609971 -4.4921494 -0.86572903 8757628 2307
5.2661114 -4.0190125 -0.87448859 8757628 2928
5.0811205 -3.5923491 -0.88230628 8757628 2248
4.1259246 -3.6567712 -0.82788664 8757628 3248
3.6565263 -3.0099545 -0.75604641 8757628 691
3.9231088 -2.9951377 -0.83570594 8757628 2293
3.8430052 -2.7159963 -0.84417838 8757628 1682
3.2348557 -2.8710589 -0.81334466 8757628 1621
3.2161059 -2.650238 -0.82365298 8757628 1529
3.1121156 -2.3776968 -0.81320006 8757628 1018
3.0819609 -2.1773312 -0.82206488 8757628 1231
2.6395605 -2.3460088 -0.80037826 8757628 1201
2.6037278 -2.1471331 -0.79840165 8757628 756
2.6080501 -1.9933051 -0.8099196 8757628 731
2.5817378 -1.8239356 -0.81337911 8757628 852
2.233865 -1.9882247 -0.79739201 8757628 507
2.2249379 -1.8360736 -0.79783082 8757628 445
2.2015293 -1.6826054 -0.79611361 8757628 473
2.2183714 -1.5660658 -0.81106281 8757628 359
5.7982965 -5.1526899 -0.024369299 8757628 2460
0 -0 -0 8757628 0
6.5582881 -5.0298209 -0.18178618 8757628 1498
7.2644467 -5.1618247 -0.28005835 8757628 5823
4.2724886 -3.7994421 -0.22664048 8757628 689
3.9855266 -3.2943125 -0.25379774 8757628 457
6.5693278 -5.0382876 -0.48315841 8757628 2060
7.0129642 -4.9868159 -0.58362818 8757628 1625
5.8465629 -5.2028913 -0.59533805 8757628 1664
3.8992083 -3.2241101 -0.43286416 8757628 890
7.7094607 -5.9169779 -0.92207783 8757628 5430
7.0021148 -4.9809403 -0.90012652 8757628 2312
5.6004052 -4.9890904 -0.84660405 8757628 3424
3.9921079 -3.3044462 -0.634471 8757628 646
5.2419624 -4.0260916 -0.87252551 8757628 3229
5.0345807 -3.5826628 -0.87612939 8757628 2566
4.1050916 -3.6608551 -0.82595617 8757628 2921
3.6693289 -3.0394261 -0.76061803 8757628 652
3.9029553 -2.9987497 -0.83336872 8757628 1913
3.8097906 -2.7100871 -0.83870471 8757628 1772
3.2223673 -2.877697 -0.81242061 8757628 2084
3.1769981 -2.6344182 -0.81570339 8757628 1463
3.1265402 -2.403944 -0.81889248 8757628 1181
3.0585442 -2.1748855 -0.81759483 8757628 1458
2.6308963 -2.3527956 -0.79993618 8757628 1150
2.6016214 -2.1588397 -0.79978293 8757628 806
2.5819137 -1.9859073 -0.80369127 8757628 841
2.5737617 -1.8301642 -0.81263155 8757628 679
2.2018421 -1.9718629 -0.78811705 8757628 513
2.2103965 -1.8355023 -0.79463202 8757628 406
2.2062604 -1.6969694 -0.79970342 8757628 436
2.209651 -1.5700893 -0.80963188 8757628 473
5.7846971 -5.1724548 -0.024378723 8757628 2823
4.2986178 -3.5728209 -0.070244178 8757628 377
6.5262055 -5.0370898 -0.18132441 8757628 1628
7.2550802 -5.1887383 -0.28030965 8757628 5413
5.7940187 -5.1844301 -0.30819461 8757628 1077
4.0905852 -3.4023285 -0.26115137 8757628 400
6.5396142 -5.0474396 -0.4821097 8757628 1505
6.9724817 -4.9903069 -0.58153051 8757628 2063
5.8335443 -5.2234645 -0.59564149 8757628 1252
3.9176371 -3.2596366 -0.43601814 8757628 1045
7.6944232 -5.9430366 -0.92245567 8757628 5344
6.9762874 -4.9948726 -0.89877218 8757628 2597
5.565094 -4.9883413 -0.84357566 8757628 3514
3.9339023 -3.2766569 -0.62681508 8757628 820
5.2319398 -4.0439739 -0.87291813 8757628 3957
5.0058575 -3.585408 -0.87304097 8757628 2933
4.1034093 -3.6820183 -0.82788664 8757628 3682
3.657711 -3.0487726 -0.76014507 8757628 608
3.9155769 -3.0275967 -0.83804309 8757628 2058
3.787853 -2.7120216 -0.83570307 8757628 1470
3.2157161 -2.88954 -0.81297505 8757628 2144
3.1696541 -2.6447814 -0.81589729 8757628 1285
3.1013398 -2.3997436 -0.81421655 8757628 767
3.0598028 -2.1899455 -0.81972343 8757628 1212
2.6229408 -2.3602037 -0.79971516 8757628 1253
2.5778055 -2.1524658 -0.79448789 8757628 807
2.5896285 -2.0045161 -0.80800319 8757628 738
2.56971 -1.839179 -0.8131299 8757628 671
2.2180343 -1.99866 -0.79610384 8757628 630
2.196619 -1.8354769 -0.79169983 8757628 367
2.1949637 -1.6990236 -0.79749429 8757628 457
2.2102792 -1.5807627 -0.8116352 8757628 322
5.7561631 -5.1788068 -0.024325317 8757628 2507
4.2945395 -3.5917659 -0.070357271 8757628 414
6.4996676 -5.0485024 -0.18101655 8757628 1764
6.9300609 -4.9884958 -0.26834214 8757628 2198
5.7491255 -5.1761074 -0.30664989 8757628 2455
4.263186 -3.5680733 -0.27286813 8757628 1271
6.5170026 -5.0619674 -0.48158535 8757628 1568
6.9190903 -4.9842663 -0.57835019 8757628 2700
5.8174915 -5.2413368 -0.59564149 8757628 2362
3.8885193 -3.25565 -0.43388706 8757628 826
7.6777263 -5.9678364 -0.92264456 8757628 6213
6.9496346 -5.008112 -0.89731365 8757628 1997
5.5460739 -5.0020638 -0.8430149 8757628 3099
3.907095 -3.2746832 -0.62414157 8757628 681
5.2148128 -4.056354 -0.8721329 8757628 2704
4.9932275 -3.599591 -0.87276024 8757628 2508
4.0840197 -3.6873002 -0.82625312 8757628 3513
3.7777195 -3.1684947 -0.78710169 8757628 321
3.8868163 -3.0244579 -0.83386958 8757628 1769
3.7531626 -2.7046399 -0.82987624 8757628 1629
3.1951721 -2.8888464 -0.81001812 8757628 1724
3.1464987 -2.6418767 -0.81201947 8757628 1446
3.0893278 -2.4056377 -0.81299675 8757628 955
3.0522768 -2.1987514 -0.81951058 8757628 1239
2.60412 -2.3577664 -0.79617858 8757628 1033
2.5771501 -2.1653724 -0.79632968 8757628 895
2.5987849 -2.0243843 -0.81279421 8757628 805
2.5499108 -1.8368651 -0.80864435 8757628 811
2.208313 -2.0022104 -0.79481566 8757628 531
2.1821251 -1.8347641 -0.78850102 8757628 346
2.1920152 -1.7075217 -0.79832274 8757628 358
2.200753 -1.5841776 -0.80991805 8757628 377
5.7350583 -5.1917443 -0.024303325 8757628 2151
4.3186917 -3.6345417 -0.070935309 8757628 509
6.4589429 -5.0487175 -0.18031289 8757628 1014
6.8499722 -4.9628205 -0.26582927 8757628 1431
5.7317371 -5.1923795 -0.30657065 8757628 2759
4.2338843 -3.5656939 -0.27169156 8757628 525
3.6935363 -2.8871012 -0.2735936 8757628 639
6.907805 -5.0083985 -0.5786885 8757628 2637
5.7984285 -5.2564812 -0.59533805 8757628 2051
3.8929908 -3.2797618 -0.43550667 8757628 958
7.6625171 -5.9938173 -0.92302239 8757628 5163
6.9141092 -5.014811 -0.89470911 8757628 1762
5.544683 -5.031743 -0.84514594 8757628 5628
3.8773022 -3.2700167 -0.62098193 8757628 761
5.1976595 -4.0686674 -0.87134767 8757628 3987
4.9677362 -3.6044269 -0.8702333 8757628 2337
4.0719557 -3.6991477 -0.82610464 8757628 3635
3.7921298 -3.2004504 -0.79214621 8757628 205
3.87519 -3.0345447 -0.83336872 8757628 1562
3.787873 -2.7473481 -0.83941102 8757628 1937
3.1681199 -2.882102 -0.80539787 8757628 1404
3.1121507 -2.6293585 -0.80523324 8757628 1494
3.0865564 -2.4187279 -0.81421655 8757628 1106
3.0376065 -2.2023702 -0.81738198 8757628 1071
2.5990369 -2.3677151 -0.79684168 8757628 1152
2.5816417 -2.182693 -0.79978293 8757628 960
2.5826287 -2.0245612 -0.80968004 8757628 606
2.5442636 -1.8446796 -0.80864435 8757628 611
2.1950216 -2.0024641 -0.79223925 8757628 604
2.1956167 -1.8576361 -0.79543173 8757628 418
2.1769333 -1.7065303 -0.79473293 8757628 348
2.1966584 -1.5914841 -0.81020421 8757628 392
5.6976643 -5.1897864 -0.024212219 8757628 1248
4.3189669 -3.6574671 -0.071123801 8757628 226
6.4410653 -5.0666552 -0.18024692 8757628 924
6.8242149 -4.9761567 -0.26542094 8757628 1788
5.7157803 -5.20994 -0.30657065 8757628 1983
4.3494143 -3.685859 -0.27982956 8757628 1659
3.7184005 -2.9249592 -0.27609885 8757628 582
6.8666167 -5.0107484 -0.57652318 8757628 4283
5.7822752 -5.2742457 -0.59533805 8757628 1927
4.0067925 -3.3967097 -0.44940129 8757628 2022
3.6327429 -2.8596325 -0.43865287 8757628 327
6.9099379 -5.044209 -0.89616764 8757628 1482
5.5204144 -5.0406899 -0.84380001 8757628 4866
3.8801172 -3.2928152 -0.62304783 8757628 445
5.1719131 -4.0741653 -0.8691228 8757628 4004
4.9494581 -3.6143959 -0.86896986 8757628 2485
4.0532885 -3.7049513 -0.82461965 8757628 3443
3.8500357 -3.269599 -0.8063339 8757628 1043
3.8465018 -3.031163 -0.8291952 8757628 2039
3.8104317 -2.7815897 -0.8462972 8757628 1945
3.1875353 -2.9176872 -0.81260544 8757628 1682
3.1421881 -2.6713004 -0.81512171 8757628 1604
3.0552883 -2.4093912 -0.80791426 8757628 975
3.0371497 -2.2162867 -0.81908482 8757628 1357
2.5996692 -2.3829267 -0.79927307 8757628 921
2.5771568 -2.1924949 -0.80047363 8757628 808
2.5680206 -2.0258603 -0.80704498 8757628 703
2.5338984 -1.8490511 -0.80714917 8757628 638
2.1853087 -2.0059218 -0.79095107 8757628 572
2.1766973 -1.8531172 -0.79063356 8757628 350
2.1792333 -1.7191536 -0.79749429 8757628 434
2.1909914 -1.5976515 -0.80991805 8757628 223
5.6765547 -5.2025132 -0.024190228 8757628 2245
5.990478 -5.1046085 -0.098907314 8757628 1297
6.3917842 -5.05971 -0.17930138 8757628 658
6.7944117 -4.9864259 -0.26485553 8757628 2504
5.6938782 -5.2220478 -0.30625379 8757628 2203
4.3517656 -3.7108507 -0.28071198 8757628 685
3.72663 -2.9499848 -0.27738059 8757628 453
6.812613 -5.0034428 -0.57327515 8757628 1944
5.7388854 -5.267015 -0.59253168 8757628 1295
3.9417744 -3.3624294 -0.4432638 8757628 998
3.6099064 -2.8596373 -0.43695268 8757628 728
6.9152694 -5.0806952 -0.89887637 8757628 3645
5.4624825 -5.01861 -0.83729458 8757628 2957
4.8339105 -4.1278181 -0.77823257 8757628 443
5.1469588 -4.0801587 -0.86702883 8757628 4339
4.9359527 -3.6278043 -0.86854875 8757628 2405
4.0382633 -3.7140214 -0.82387716 8757628 3589
3.9315753 -3.3596613 -0.82556611 8757628 2682
3.8356395 -3.0417242 -0.82886136 8757628 2108
3.805846 -2.796181 -0.84718007 8757628 1652
3.161943 -2.9121397 -0.80835479 8757628 1739
3.1153409 -2.6649854 -0.81027442 8757628 1514
3.0478818 -2.4187531 -0.80791426 8757628 1071
3.020098 -2.218075 -0.81631768 8757628 1140
2.5823095 -2.3816345 -0.79617858 8757628 1201
2.5726361 -2.2022898 -0.80116427 8757628 796
2.5237732 -2.0035465 -0.79506749 8757628 506
2.532897 -1.860256 -0.80864435 8757628 716
2.1777248 -2.0113056 -0.79043579 8757628 563
2.1761253 -1.8641758 -0.79249948 8757628 501
2.1731958 -1.7252338 -0.79721814 8757628 482
2.1860793 -1.6043658 -0.80991805 8757628 248
5.6598315 -5.2192259 -0.024187086 8757628 2543
5.9763079 -5.1242647 -0.098932452 8757628 1668
3.9966784 -3.183748 -0.11238771 8757628 159
6.7726502 -5.0024962 -0.26460424 8757628 1560
5.6697521 -5.232038 -0.30581811 8757628 3506
5.9374857 -5.0945745 -0.38400576 8757628 983
3.8581123 -3.0733666 -0.28786758 8757628 408
6.7755685 -5.0083079 -0.57144815 8757628 1926
4.111084 -3.7963593 -0.42566407 8757628 451
4.0531631 -3.478987 -0.45698792 8757628 829
3.6268051 -2.8911769 -0.44006971 8757628 371
6.9236393 -5.1196265 -0.9020018 8757628 3951
5.4813547 -5.0670476 -0.84256619 8757628 4990
5.2021637 -4.4699507 -0.83972317 8757628 1365
5.124342 -4.0878935 -0.86532754 8757628 2978
4.939127 -3.6535292 -0.87107563 8757628 2192
4.0188661 -3.7190051 -0.82224363 8757628 3234
3.8980379 -3.3517489 -0.82067925 8757628 2155
3.8147295 -3.0442524 -0.82635725 8757628 1810
3.7489727 -2.772146 -0.83640933 8757628 1812
3.1551557 -2.9238307 -0.80890924 8757628 1684
3.0945106 -2.6636508 -0.80697829 8757628 1706
3.0442722 -2.4311476 -0.80893075 8757628 835
3.027422 -2.2377846 -0.82014912 8757628 899
2.5678415 -2.3829117 -0.79396814 8757628 921
2.5776644 -2.2203338 -0.80484778 8757628 814
2.5282342 -2.0197637 -0.7984212 8757628 622
2.522505 -1.8645643 -0.80714917 8757628 606
2.1588035 -2.0061378 -0.78579831 8757628 603
2.1623657 -1.863921 -0.78956729 8757628 446
2.1528745 -1.719895 -0.79169536 8757628 385
2.1765227 -1.6076493 -0.8082009 8757628 312
5.6232672 -5.2175212 -0.024099123 8757628 2172
5.9567733 -5.1393094 -0.098869622 8757628 484
0 -0 -0 8757628 0
6.7364149 -5.0077472 -0.26378757 8757628 2539
5.6434231 -5.2398896 -0.30526358 8757628 2604
4.3319387 -3.7400937 -0.28090808 8757628 297
3.9016321 -3.1276481 -0.29182932 8757628 345
6.7505651 -5.0219259 -0.57063615 8757628 2270
4.1315584 -3.8388174 -0.42900142 8757628 1131
4.1050572 -3.5454602 -0.46406311 8757628 410
3.7312932 -2.9932399 -0.45386025 8757628 531
6.9118891 -5.1438131 -0.90252268 8757628 3583
5.3981161 -5.0209017 -0.83213508 8757628 2830
5.2207122 -4.5138049 -0.84494865 8757628 4534
3.5957153 -2.886543 -0.60868698 8757628 456
4.9000983 -3.6479714 -0.86616224 8757628 2702
4.0110559 -3.7346869 -0.82298613 8757628 3483
3.8795221 -3.3565848 -0.81894517 8757628 2212
3.8184409 -3.0664368 -0.8291952 8757628 1767
3.7278161 -2.7742326 -0.83358419 8757628 1713
3.1476083 -2.9348371 -0.80927885 8757628 1648
3.102638 -2.6872621 -0.81124389 8757628 1586
3.0398521 -2.4429293 -0.80974394 8757628 950
2.985265 -2.2208183 -0.81057042 8757628 1358
2.5669343 -2.3967688 -0.79595751 8757628 1095
2.5406904 -2.2020996 -0.79540879 8757628 881
2.5174856 -2.0238607 -0.7969839 8757628 541
2.5012324 -1.8607336 -0.80216527 8757628 549
2.1547556 -2.0147314 -0.7865712 8757628 538
2.1595495 -1.8730725 -0.79063356 8757628 392
2.1415951 -1.7216743 -0.78948623 8757628 270
2.1754251 -1.6171774 -0.80963188 8757628 353
5.5955377 -5.2238297 -0.024048857 8757628 1865
4.2412901 -3.6820052 -0.070583455 8757628 854
0 -0 -0 8757628 0
6.7034125 -5.0152178 -0.26309654 8757628 1836
5.6200185 -5.2503572 -0.30486751 8757628 2897
4.2782192 -3.7166839 -0.27816272 8757628 323
3.9378614 -3.176584 -0.29526672 8757628 331
6.7135625 -5.0264673 -0.56880909 8757628 2470
4.1306872 -3.8616886 -0.43013915 8757628 1099
4.179894 -3.6325448 -0.47378081 8757628 281
3.808851 -3.0747097 -0.46443933 8757628 579
6.9231405 -5.1852655 -0.90606487 8757628 4985
4.2595701 -3.9863605 -0.65850723 8757628 493
5.203095 -4.5265431 -0.84434104 8757628 3513
3.5775886 -2.890085 -0.60711652 8757628 474
4.8880911 -3.662394 -0.86602181 8757628 2470
3.9844239 -3.7327769 -0.81986767 8757628 3037
3.8975079 -3.393111 -0.82493556 8757628 2433
3.7806413 -3.0552077 -0.82301843 8757628 1807
3.7500122 -2.8086686 -0.84047043 8757628 1915
3.126405 -2.9330494 -0.80613714 8757628 1824
3.0951185 -2.6974127 -0.81143779 8757628 1392
3.0338657 -2.4534752 -0.81015056 8757628 995
2.9995553 -2.2457776 -0.81631768 8757628 1243
2.5602798 -2.4053006 -0.79617858 8757628 1073
2.5603251 -2.2329102 -0.80369669 8757628 910
2.517303 -2.0364599 -0.79890025 8757628 655
2.50559 -1.8759439 -0.80540484 8757628 761
2.1633432 -2.0352364 -0.79198164 8757628 555
2.1392694 -1.8670142 -0.78530222 8757628 430
2.1377974 -1.7294457 -0.79003853 8757628 400
2.1627812 -1.6181041 -0.80676997 8757628 382
5.5641794 -5.2265949 -0.023982882 8757628 1749
4.2239494 -3.6897373 -0.070482932 8757628 317
4.1395249 -3.3602779 -0.11726935 8757628 259
6.6704283 -5.0225334 -0.26240548 8757628 2104
5.5907798 -5.2552562 -0.30415455 8757628 2717
4.2592769 -3.7232182 -0.2776725 8757628 897
3.943599 -3.2012339 -0.29643193 8757628 413
6.6821733 -5.0350327 -0.56745577 8757628 1689
5.5721374 -5.2413969 -0.58191282 8757628 1365
4.1214776 -3.6040313 -0.46841049 8757628 575
3.7808549 -3.0713158 -0.46217239 8757628 358
6.9000525 -5.2010927 -0.90512723 8757628 4083
4.2538314 -4.0055408 -0.65951669 8757628 1307
4.236937 -3.7089114 -0.68939936 8757628 643
3.5756285 -2.9066756 -0.60829437 8757628 367
4.8847375 -3.6833346 -0.86742568 8757628 2440
3.9679155 -3.7402353 -0.81882817 8757628 3080
3.8997078 -3.4161139 -0.82761544 8757628 2614
3.7444766 -3.0450196 -0.81717545 8757628 1671
3.7083654 -2.7952764 -0.83305448 8757628 1571
3.1023839 -2.9284604 -0.80225611 8757628 1805
3.09863 -2.7172446 -0.81454003 8757628 1459
3.0248053 -2.4615355 -0.80974394 8757628 1092
2.9879694 -2.2514415 -0.81504047 8757628 1253
2.5479271 -2.4084542 -0.7946313 8757628 1248
2.5534625 -2.2407546 -0.80369669 8757628 937
2.5102904 -2.0435603 -0.7986607 8757628 666
2.495182 -1.8801254 -0.80390966 8757628 654
2.1416512 -2.0272508 -0.78631353 8757628 707
2.1400492 -1.8792924 -0.78770131 8757628 398
2.1376991 -1.7402437 -0.7919715 8757628 418
2.1539795 -1.62185 -0.80533898 8757628 293
5.5466642 -5.2422671 -0.0239766 8757628 2504
4.2471576 -3.7330451 -0.07106097 8757628 161
4.0788689 -3.3318515 -0.11584004 8757628 163
6.6199369 -5.0164137 -0.26102343 8757628 1799
5.5499473 -5.2490392 -0.30280784 8757628 2155
4.2380843 -3.7276928 -0.27703518 8757628 447
3.9724164 -3.2448955 -0.29934499 8757628 1003
6.6444354 -5.03863 -0.56556112 8757628 1459
5.5574789 -5.2598386 -0.58206451 8757628 1950
4.1238651 -3.6285059 -0.46994486 8757628 204
3.7814345 -3.0910916 -0.4634003 8757628 627
6.8943634 -5.230052 -0.90648162 8757628 4993
5.3271499 -5.0471354 -0.82832158 8757628 1967
4.1890402 -3.6897454 -0.68344474 8757628 731
5.0423293 -4.124733 -0.85996175 8757628 948
4.8394995 -3.6725664 -0.86138922 8757628 2630
3.9456594 -3.742183 -0.81660068 8757628 3277
3.8543909 -3.397373 -0.82020634 8757628 2593
3.7679276 -3.0833433 -0.82435393 8757628 2113
3.6715417 -2.7852249 -0.82669801 8757628 1637
3.084121 -2.9291663 -0.79985362 8757628 1457
3.0799804 -2.7176514 -0.81182557 8757628 1451
3.0445104 -2.4931359 -0.81706274 8757628 1061
2.9763768 -2.2570555 -0.81376332 8757628 1177
2.5475931 -2.422981 -0.79684168 8757628 1189
2.5494938 -2.2511544 -0.80461758 8757628 950
2.5032582 -2.050637 -0.7984212 8757628 665
2.4978907 -1.8942087 -0.80665082 8757628 765
2.1305239 -2.0291467 -0.78451008 8757628 555
2.1508856 -1.9005275 -0.7938323 8757628 415
2.1323502 -1.7467937 -0.7919715 8757628 402
2.1428843 -1.6238211 -0.8030495 8757628 323
5.5131631 -5.2427211 -0.023901202 8757629 2492
5.8228493 -5.1497526 -0.097688414 8757629 1462
4.2184591 -3.4675093 -0.12010598 8757629 243
6.586236 -5.0227594 -0.26030096 8757629 1455
5.5244069 -5.2570872 -0.30229294 8757629 2271
4.2804799 -3.7883377 -0.2805649 8757629 558
3.9979179 -3.2862275 -0.30202499 8757629 886
6.5995998 -5.0365953 -0.56305742 8757629 960
5.5290403 -5.2651744 -0.58077508 8757629 2423
4.137332 -3.662936 -0.47275791 8757629 519
3.7811596 -3.1102676 -0.46453378 8757629 944
6.8719616 -5.2463508 -0.90564817 8757629 5208
5.3296218 -5.080596 -0.83112562 8757629 4570
4.2504983 -3.7670984 -0.69535398 8757629 488
4.0345898 -3.3210936 -0.6898278 8757629 662
4.8242755 -3.684392 -0.86068732 8757629 2515
